# .PCD v0.7 - Point Cloud Data file format
VERSION 0.7
FIELDS x y z
SIZE 4 4 4
TYPE F F F
COUNT 1 1 1
WIDTH 1614
HEIGHT 1
VIEWPOINT 0 0 0 1 0 0 0
POINTS 1614
DATA ascii
41662.262 51353.488 60.486652
41662.164 51351.703 60.466812
41662.285 51351.43 60.493446
41662.148 51351.094 60.530174
41662.297 51349.477 60.411083
41662.297 51349.152 60.409012
41662.383 51348.191 60.338158
41662.16 51347.383 60.678665
41662.152 51347.215 60.698982
41662.266 51345.754 60.351913
41662.238 51345.629 60.372311
41662.41 51340.262 60.610001
41662.461 51339.602 60.587429
41662.57 51354.574 60.604622
41662.664 51354.352 60.617733
41662.66 51354.105 60.635593
41662.68 51352.281 60.396858
41662.527 51351.984 60.431358
41662.582 51351.328 60.498844
41662.527 51351.207 60.5126
41662.625 51349.406 60.421539
41662.738 51349.223 60.446312
41662.824 51348.648 60.399685
41662.754 51348.363 60.319489
41662.879 51347.195 60.309689
41662.691 51346.766 60.380852
41662.891 51343.453 60.705406
41662.688 51340.637 60.650215
41662.832 51339.621 60.575588
41663.102 51354.27 60.608459
41662.938 51353.922 60.6394
41663.047 51352.184 60.398926
41663.117 51352.078 60.408371
41663.125 51349.316 60.432831
41663.078 51349.184 60.45108
41663.129 51348.324 60.332226
41663.246 51347.887 60.296509
41663.32 51347.336 60.298359
41663.109 51347.195 60.319172
41663.352 51339.941 60.649261
41663.078 51339.668 60.554501
41663.332 51354.289 60.598621
41663.574 51353.887 60.618889
41663.367 51352.012 60.408916
41663.633 51350.867 60.523727
41663.457 51349.562 60.531452
41663.531 51349.035 60.467674
41663.469 51348.746 60.508995
41663.527 51348.223 60.352226
41663.547 51348.043 60.383549
41663.57 51347.43 60.285919
41663.602 51347.145 60.297485
41663.547 51346.527 60.291454
41663.551 51339.996 60.688953
41663.723 51339.645 60.661324
41663.723 51353.781 60.621082
41663.922 51353.664 60.621635
41663.957 51352.578 60.515369
41663.918 51350.637 60.540134
41663.934 51350.312 60.574299
41663.949 51349.832 60.625683
41663.887 51349.035 60.462292
41663.977 51348.828 60.489925
41663.887 51348.262 60.402775
41664.074 51347.965 60.360989
41663.941 51347.48 60.279934
41663.812 51347.289 60.31847
41664.055 51339.645 60.665924
41664.145 51350.652 60.530975
41664.383 51350.359 60.554501
41664.359 51349.914 60.603802
41664.191 51348.988 60.462536
41664.379 51348.84 60.47863
41664.254 51348.152 60.360111
41664.363 51348.09 60.369656
41664.324 51347.516 60.272736
41664.547 51350.242 60.561413
41664.656 51350.074 60.575386
41664.613 51348.785 60.480087
41664.621 51348.312 60.381893
41664.672 51348.035 60.372124
41664.676 51347.492 60.273178
41664.906 51350.227 60.548908
41665.004 51349.969 60.572681
41665.051 51348.805 60.46088
41665.086 51348.039 60.357838
41665.117 51347.488 60.261623
41665.18 51346.949 60.197193
41665.703 51348.582 60.462124
41665.695 51347.938 60.347427
41665.66 51347.383 60.25853
41665.691 51347.281 60.260433
41665.684 51346.887 60.187912
41665.859 51348.578 60.453304
41665.895 51348.441 60.470921
41665.836 51347.906 60.344254
41665.805 51347.375 60.2509
41665.82 51347.34 60.257881
41665.777 51346.875 60.184547
41666.336 51348.941 60.493065
41666.895 51339.688 60.522789
41667.215 51348.824 60.443344
41667.203 51339.688 60.458881
41667.664 51339.707 60.480099
41668.117 51348.629 60.387024
41668.043 51339.699 60.326218
41668.461 51347.578 60.136948
41668.484 51339.711 60.324623
41668.75 51348.238 60.243767
41668.785 51348.078 60.245388
41668.762 51347.586 60.094238
41668.785 51347.281 60.081448
41668.898 51339.996 60.302849
41668.82 51339.715 60.207256
41669.273 51348.797 60.384502
41669.066 51348.426 60.311977
41669.117 51348.105 60.216206
41669.121 51347.547 60.047485
41669.23 51347.379 60.056767
41669.43 51339.949 60.41769
41669.258 51339.734 60.171658
41669.484 51348.73 60.369362
41669.605 51348.582 60.370361
41669.535 51348.012 60.175117
41669.566 51339.738 60.106621
41669.973 51348.68 60.321594
41669.84 51348.551 60.347683
41669.75 51348.023 60.145374
41669.934 51347.199 59.968884
41669.883 51345.129 60.229477
41669.945 51345.004 60.23061
41670.023 51339.738 60.183453
41670.184 51348.707 60.296207
41670.379 51347.875 60.076134
41670.445 51347.77 60.078663
41670.508 51339.953 60.087196
41670.441 51339.777 60.093925
41670.906 51348.469 60.234089
41670.68 51347.621 60.060535
41670.77 51347.262 60.019306
41670.66 51340.117 60.06744
41671.137 51348.426 60.210304
41671.266 51347.98 60.083744
41671.102 51347.523 60.007591
41671.172 51347.309 60.018326
41671.285 51343.523 60.270302
41671.285 51340.039 60.030975
41671.559 51348.367 60.164207
41671.445 51348.191 60.192051
41671.559 51347.328 59.956348
41671.699 51343.559 60.191608
41671.926 51348.793 60.250359
41671.895 51348.312 60.126835
41671.891 51348.184 60.137177
41671.883 51347.199 59.91684
41671.996 51346.961 59.920383
41671.809 51343.52 60.172588
41672.16 51348.262 60.097347
41672.285 51348.105 60.093189
41672.449 51347.52 59.955757
41672.129 51347.113 59.885284
41672.262 51347.008 59.872532
41672.684 51347.992 60.049236
41672.793 51347.812 60.047508
41672.758 51346.355 59.841938
41672.812 51339.816 60.246262
41673.156 51347.918 59.992123
41673.199 51347.805 59.994225
41673.336 51339.812 60.167835
41673.406 51348.402 60.106022
41673.434 51347.762 59.965157
41673.473 51346.797 59.85323
41673.629 51343.582 59.977551
41673.676 51340.059 60.122105
41673.559 51339.801 60.134087
41674.055 51347.164 59.916706
41674.086 51340.035 60.059635
41674.027 51339.824 60.03775
41674.109 51349.773 60.145119
41674.488 51347.57 59.832428
41674.344 51347.293 59.868526
41674.242 51347.016 59.89864
41674.379 51343.59 60.012672
41674.32 51340.102 60.025497
41674.691 51349.199 60.113007
41674.746 51347.223 59.815781
41674.82 51346.992 59.817757
41674.73 51340.086 59.963142
41675.254 51349.844 60.02433
41675.289 51349.285 60.046501
41675.078 51349.043 60.079777
41675.25 51347.938 59.907692
41675.215 51347.18 59.751392
41675.195 51346.91 59.76828
41675.145 51340.043 59.899971
41675.566 51349.684 59.999332
41675.434 51349.109 60.039078
41675.406 51347.102 59.728592
41675.527 51346.996 59.716255
41675.441 51340.008 59.853825
41675.785 51349.352 59.991184
41676.035 51343.645 59.853798
41676.199 51340.773 59.748253
41676.195 51340.496 59.745991
41676.09 51340.062 59.756168
41676.281 51340.855 59.833496
41676.301 51340.145 59.725437
41676.449 51339.867 59.698906
41676.77 51348.758 59.910145
41676.656 51343.648 59.662891
41676.805 51340.93 59.65657
41677.043 51348.988 59.871201
41677.223 51343.684 59.996803
41677.383 51340.871 59.993256
41677.598 51348.961 59.811611
41677.547 51343.688 59.95853
41677.637 51340.922 59.963348
41677.934 51340.93 59.928333
41678.395 51343.691 59.858383
41678.27 51340.938 59.888622
41679.238 51343.727 59.758293
41679.176 51343.305 59.770771
41679.211 51343.109 59.768734
41679.648 51343.727 59.710133
41679.746 51341.973 59.712543
41679.75 51341.793 59.712875
41680.16 51342.156 59.662785
41680.023 51341.559 59.681076
41680.465 51347.582 59.535347
41680.434 51347.34 59.545738
41680.387 51346.977 59.560608
41680.387 51346.508 59.709007
41680.254 51341.43 59.653782
41680.656 51347.98 59.502007
41680.594 51347.793 59.514446
41680.547 51346.402 59.556438
41680.723 51346.145 59.541653
41680.758 51343.73 59.578896
41681.066 51360.039 59.742619
41681.117 51359.762 59.747555
41681.062 51349.383 59.411606
41681.098 51348.695 59.430042
41681.305 51342.98 59.521515
41681.316 51342.543 59.663593
41681.289 51342.355 59.528076
41681.289 51341.207 59.531345
41681.289 51340.98 59.531132
41681.297 51340.727 59.530319
41681.18 51359.723 59.744106
41681.168 51359.484 59.752285
41681.445 51343.723 59.497715
41682.141 51345.734 59.385056
41683.59 51357.496 59.630421
41686.961 51345.434 59.207798
41642.254 51343.668 61.73317
41643.531 51343.656 61.714699
41643.621 51342.516 61.720257
41643.691 51340.012 61.727306
41643.629 51337.902 61.727482
41643.672 51335.359 61.717125
41644.117 51343.684 61.705944
41644.723 51343.703 61.696926
41645.457 51343.711 61.686142
41645.984 51343.734 61.678288
41646.594 51343.742 61.669338
41647.285 51343.742 61.659191
41647.691 51343.762 61.653126
41648.453 51343.773 61.641869
41648.648 51344.371 61.633942
41649.137 51343.785 61.631763
41649.652 51343.785 61.624168
41649.945 51343.805 61.619728
41650.328 51343.809 61.481506
41650.727 51340.82 61.623112
41651.176 51343.766 61.601963
41651.633 51343.777 61.595089
41652.031 51343.797 61.589111
41652.414 51343.789 61.583458
41652.844 51343.816 61.576881
41653.238 51343.863 61.570625
41653.637 51340.875 61.580315
41653.984 51343.844 61.360043
41654.32 51343.863 61.161514
41654.422 51361.723 61.08247
41654.43 51361.422 61.092525
41654.434 51361 61.106857
41654.445 51360.582 61.120865
41654.461 51360.168 61.134438
41654.469 51359.781 61.14732
41654.465 51359.484 61.157463
41654.641 51352.098 61.38319
41654.645 51351.848 61.390049
41654.676 51350.117 61.396042
41654.688 51349.785 61.442951
41654.699 51349.379 61.452534
41654.707 51348.988 61.461517
41654.711 51348.586 61.470448
41654.723 51348.16 61.458168
41654.723 51347.91 61.484818
41654.734 51347.395 61.495049
41654.742 51347 61.502487
41654.738 51346.605 61.308224
41654.723 51346.379 61.111507
41654.738 51345.953 61.124126
41654.754 51345.316 61.140965
41654.758 51344.988 61.148655
41654.766 51344.691 61.251102
41654.789 51344.117 61.166443
41654.793 51343.91 61.170002
41660.219 51338.758 61.026596
41660.539 51347.547 60.859119
41660.43 51339.281 61.060974
41660.434 51339.105 61.10405
41660.492 51338.84 61.041176
41660.77 51350.941 60.903549
41660.727 51347.508 60.866322
41660.883 51340.688 61.053108
41660.941 51340.465 60.962105
41660.832 51339.797 61.10125
41660.754 51338.949 60.856808
41661.098 51353.531 61.147247
41661.176 51351.402 60.865425
41661.262 51350.926 60.895969
41661.133 51350.793 60.907234
41661.27 51346.676 61.052917
41661.168 51342.996 60.999348
41661.348 51340.984 61.015083
41661.324 51340.676 60.99733
41661.406 51340.32 60.9939
41661.27 51340.039 61.048794
41661.438 51363.02 60.77523
41661.262 51362.656 60.796478
41661.352 51362.441 60.801083
41661.363 51361.152 60.849857
41661.5 51358.293 60.953201
41661.469 51354.234 61.107315
41661.531 51353.508 61.13205
41661.621 51353.195 61.140236
41661.508 51351.105 60.878708
41661.574 51350.781 60.98172
41661.562 51347.113 60.914612
41661.574 51346.598 61.06263
41661.613 51346.453 60.972363
41661.789 51345.402 61.058262
41661.625 51345.145 61.041035
41661.73 51343.414 61.032249
41661.668 51342.961 61.045662
41661.641 51341.148 61.043163
41661.648 51340.699 61.0298
41661.594 51340.277 61.001526
41661.773 51339.906 60.993568
41661.789 51339.582 60.965443
41661.773 51363.82 60.730022
41661.793 51363.512 60.741058
41661.57 51363.223 60.761833
41661.867 51359.074 60.908333
41661.727 51355.965 61.032417
41662.012 51353.898 60.885132
41661.969 51353.414 61.118759
41661.906 51353.262 61.126865
41661.988 51351.883 60.813831
41662.004 51351.492 60.840694
41661.891 51351.113 60.869843
41661.832 51347.789 61.091965
41662.117 51347.461 60.999367
41662.055 51347.066 61.029823
41661.91 51346.684 60.953247
41661.816 51346.473 60.973728
41661.812 51345.34 60.978065
41661.805 51345.273 60.983994
41661.953 51343.453 60.917515
41661.941 51339.996 61.012333
41662.074 51339.594 60.987823
41662.133 51365.199 60.661217
41662.258 51364.828 60.669956
41661.957 51363.781 60.723698
41662.41 51354.926 61.044064
41662.156 51354.148 61.083805
41662.148 51353.793 61.097561
41662.156 51353.535 61.106865
41662.285 51351.926 60.802876
41662.133 51351.469 60.839054
41662.234 51351.277 60.849957
41662.207 51347.512 60.994637
41662.176 51346.996 60.932514
41662.406 51340.203 60.800495
41662.379 51339.996 61.043785
41662.512 51339.602 60.950161
41662.586 51354.816 61.041069
41662.789 51352.535 60.744621
41662.852 51352.488 60.745998
41662.52 51351.859 60.801044
41662.902 51343.453 60.918781
41662.852 51339.617 60.953953
41662.953 51363.102 60.705833
41662.953 51356.098 60.976429
41662.891 51352.539 60.740963
41662.926 51351.75 60.796589
41663.395 51339.98 60.939625
41663.082 51339.707 60.936234
41663.207 51363.082 60.695351
41663.316 51358.273 60.876842
41663.281 51356.215 60.709106
41663.395 51354.074 61.035381
41663.672 51339.984 60.906643
41663.758 51339.637 60.911873
41663.906 51353.516 60.633099
41664.102 51343.445 61.000896
41664.129 51339.887 60.877411
41664.102 51339.641 60.878906
41664.324 51358.828 60.809326
41664.152 51353.445 60.628654
41664.453 51339.645 60.883327
41664.465 51357.465 60.85585
41664.656 51357.098 60.861275
41664.82 51351.516 60.742153
41664.891 51349.719 60.604694
41664.848 51339.648 60.890285
41664.898 51351.418 60.745968
41664.98 51351.293 60.751652
41665.051 51349.637 60.60672
41665.344 51345.398 60.824142
41665.242 51339.652 60.847309
41665.547 51345.363 60.758312
41665.492 51345.324 60.767056
41665.812 51343.496 60.980484
41665.703 51339.66 60.825611
41665.902 51355.812 60.850758
41665.988 51355.719 60.850288
41665.898 51351.043 60.725063
41665.957 51350.941 60.729385
41665.727 51349.781 60.558186
41665.93 51349.5 60.577908
41666.113 51349.258 60.593761
41666.055 51343.5 60.957542
41666.195 51339.816 60.767967
41666.047 51339.672 60.835541
41666.348 51355.781 60.829559
41666.191 51355.691 60.840866
41666.176 51350.969 60.715599
41666.312 51350.848 60.717098
41666.406 51350.145 60.622379
41666.344 51349.441 60.559795
41666.211 51349.336 60.579449
41666.543 51343.469 60.883232
41666.512 51339.922 60.792217
41666.473 51339.648 60.785652
41666.676 51355.793 60.811935
41666.641 51355.66 60.819077
41666.605 51352.824 60.743317
41666.695 51350.785 60.699646
41666.66 51349.43 60.540874
41666.777 51349.297 60.547134
41666.691 51340.613 60.89547
41666.852 51339.664 60.741203
41666.906 51338.879 60.848351
41666.934 51355.48 60.810638
41667.105 51355.234 60.811165
41667.098 51354.395 60.844009
41666.98 51350.648 60.692417
41667.102 51350.438 60.700294
41667.121 51349.199 60.533215
41667.25 51339.66 60.730507
41667.277 51338.613 60.775005
41667.406 51338.492 60.82045
41667.273 51354.797 60.819134
41667.355 51354.418 60.829201
41667.402 51353.867 60.847851
41667.531 51353.625 60.850365
41667.637 51351.094 60.780205
41667.43 51350.32 60.687813
41667.547 51350.082 60.697269
41667.375 51349.656 60.603241
41667.492 51349.094 60.515862
41667.645 51348.879 60.526215
41667.691 51343.535 60.824234
41667.633 51339.672 60.668392
41667.898 51350.043 60.675751
41668.031 51349.758 60.686966
41667.996 51349.004 60.484135
41667.902 51348.891 60.503578
41668.027 51339.684 60.708706
41668.285 51349.965 60.65387
41668.281 51349.773 60.667824
41668.293 51349.191 60.508064
41668.324 51348.883 60.467567
41668.434 51339.711 60.659439
41668.82 51350.875 60.715466
41668.664 51349.961 60.626087
41668.746 51349.75 60.6343
41668.719 51348.797 60.439312
41668.832 51343.562 60.694317
41668.922 51339.965 60.664707
41668.863 51339.723 60.661304
41669.145 51349.93 60.591385
41669.102 51349.633 60.614384
41669.195 51349.379 60.624092
41669.062 51348.727 60.412689
41669.184 51339.898 60.521931
41669.203 51339.738 60.607162
41669.535 51350.258 60.538174
41669.52 51349.992 60.55711
41669.57 51349.652 60.575302
41669.543 51349.254 60.459419
41669.422 51348.633 60.384636
41669.512 51348.379 60.39901
41669.836 51340.145 60.522434
41669.676 51339.734 60.669849
41669.906 51349.93 60.529083
41669.969 51349.66 60.541485
41670.016 51349.266 60.562405
41669.895 51345.105 60.519371
41669.941 51344.988 60.52063
41670.137 51343.57 60.569572
41670.035 51340.105 60.485207
41670.059 51339.738 60.553501
41670.293 51351.008 60.604355
41670.277 51350.004 60.493214
41670.328 51349.691 60.508636
41670.18 51349.25 60.499786
41670.625 51340.262 60.583782
41670.512 51340.008 60.491539
41670.395 51339.758 60.50153
41670.75 51349.887 60.459572
41670.734 51349.68 60.473362
41670.84 51343.605 60.550026
41670.785 51340.262 60.560398
41670.746 51340.105 60.55088
41671.164 51349.906 60.421299
41671 51349.758 60.444893
41671.227 51343.621 60.590721
41671.305 51340.008 60.696518
41671.734 51343.582 60.529831
41671.531 51339.891 60.668179
41671.707 51339.781 60.646149
41671.988 51353.531 60.582314
41671.996 51349.578 60.363251
41672.09 51349.348 60.367661
41671.922 51343.555 60.506989
41672.238 51340.078 60.338749
41672.164 51339.789 60.59388
41672.363 51353.969 60.542454
41672.289 51353.734 60.555386
41672.219 51353.152 60.580067
41672.137 51349.539 60.35199
41672.266 51349.258 60.441669
41672.449 51348.945 60.354221
41672.465 51343.559 60.432804
41672.301 51340.082 60.329399
41672.477 51339.801 60.426922
41672.781 51352.156 60.357388
41672.652 51349.277 60.316631
41672.75 51343.551 60.396713
41672.898 51339.805 60.50975
41673.191 51349.527 60.249916
41673.133 51349.266 60.269447
41673.02 51343.574 60.493462
41673.25 51339.809 60.468987
41673.363 51355.141 60.43602
41673.484 51354.977 60.433365
41673.48 51349.539 60.220387
41673.48 51349.273 60.234188
41673.676 51343.594 60.416092
41673.684 51340.047 60.422047
41673.637 51339.809 60.42411
41673.816 51354.844 60.415348
41673.922 51349.637 60.170887
41673.918 51349.191 60.193604
41674.023 51348.965 60.193714
41674.09 51340.02 60.45293
41674.012 51339.832 60.381199
41674.207 51354.738 60.392086
41674.105 51349.582 60.154934
41674.219 51349.27 60.15892
41674.336 51349.074 60.156113
41674.312 51340.094 60.349316
41674.562 51354.777 60.366291
41674.52 51349.176 60.132217
41674.637 51348.945 60.130589
41674.652 51343.629 60.3008
41675.082 51355.195 60.316929
41674.836 51354.945 60.342072
41675.754 51339.844 60.178318
41676.02 51343.645 60.139259
41676.234 51340.719 60.128361
41676.23 51340.613 60.128269
41676.098 51340.082 60.140125
41676.043 51339.848 60.144314
41676.32 51340.801 60.118706
41676.254 51340.469 60.124786
41676.301 51340.141 60.116985
41676.438 51339.852 60.098526
41676.781 51351.266 60.054291
41676.832 51343.668 60.043098
41676.82 51340.859 60.059792
41677.199 51343.676 60.416622
41677.387 51340.816 60.372883
41677.559 51355.336 60.137074
41677.781 51340.867 60.382084
41677.758 51349.449 60.278164
41678.094 51340.875 60.356342
41678.133 51354.832 60.110161
41678.371 51343.684 60.319176
41678.359 51340.91 60.334026
41678.641 51343.652 60.297127
41679.27 51343.285 60.24752
41679.312 51343.094 60.24543
41679.645 51343.723 60.21315
41679.766 51342.039 60.213493
41679.762 51341.656 60.21537
41679.883 51341.973 60.204041
41679.938 51341.777 60.200275
41680.477 51347.738 60.093468
41680.285 51347.316 60.115944
41680.234 51346.957 60.125744
41680.379 51346.551 60.119808
41680.812 51351.195 59.999374
41680.801 51351.125 60.001991
41680.871 51349.758 60.024815
41680.836 51349.324 60.036068
41680.633 51348.457 60.068611
41680.57 51347.773 60.085243
41680.57 51346.402 60.106243
41680.832 51346.16 60.088165
41680.867 51345.965 60.087719
41680.742 51343.723 60.121639
41681.09 51357.504 59.816139
41681.168 51353.605 59.91507
41681.145 51353.438 59.920914
41681.18 51352.98 59.929657
41681.121 51351.246 59.974049
41681.043 51350.965 59.986225
41681.152 51350.582 59.985806
41681.184 51350.223 59.990582
41681.062 51349.863 60.007431
41680.93 51349.543 60.024441
41681.152 51345.672 60.067795
41681.32 51345.137 60.060165
41681.344 51342.93 60.077377
41681.344 51342.578 60.079353
41681.266 51342.254 60.087624
41681.324 51341.305 60.086285
41681.328 51340.977 60.086742
41681.328 51340.727 60.087215
41681.43 51357.445 59.792858
41681.32 51357.012 59.813103
41681.355 51356.039 59.83746
41681.391 51355.793 59.841373
41681.414 51355.402 59.850056
41681.406 51354.977 59.861874
41681.566 51354.773 59.855022
41681.391 51354.156 59.884201
41681.301 51353.855 59.89883
41681.305 51353.363 59.910583
41681.281 51352.992 59.921329
41681.555 51350.062 59.96439
41681.598 51345.609 60.031719
41681.402 51343.715 60.066814
41681.48 51343.113 60.064926
41681.711 51356.902 59.787045
41681.918 51354.801 59.827515
41681.648 51354.711 59.85051
41682.023 51345.648 59.99625
41682.066 51343.727 60.011513
41682.113 51356.984 59.754822
41682.293 51351.715 59.871372
41682.922 51347.906 59.891811
41686.969 51346.129 59.58168
41686.98 51345.852 59.583805
41686.992 51345.402 59.587528
41687.004 51345 59.590084
41687.012 51344.645 59.592545
41654.012 51343.844 61.559269
41654.359 51343.828 61.554276
41654.758 51346.574 61.510025
41654.754 51346.379 61.513493
41654.766 51345.953 61.520378
41654.785 51345.316 61.529804
41654.793 51344.988 61.534229
41654.785 51344.609 61.539219
41654.812 51344.121 61.544453
41654.812 51343.898 61.54681
41660.246 51339.172 61.467541
41660.48 51351.117 61.255051
41660.645 51340.152 61.470718
41660.645 51340.008 61.285595
41660.559 51339.348 61.366264
41660.418 51339.215 61.464859
41660.672 51350.965 61.25412
41660.871 51350.824 61.252514
41661 51340.691 61.304985
41660.91 51340.246 61.382847
41660.895 51339.91 61.368938
41660.84 51339.594 61.369823
41661.066 51339.25 61.268867
41661.176 51350.934 61.238438
41661.109 51350.766 61.246601
41661.273 51346.758 61.374844
41661.352 51342.969 61.384712
41661.391 51340.996 61.371307
41661.324 51340.727 61.387531
41661.309 51340.23 61.379021
41661.262 51340.02 61.37722
41661.188 51339.336 61.362053
41661.172 51339.242 61.360207
41661.551 51350.703 61.23381
41661.602 51346.98 61.359184
41661.668 51346.656 61.26717
41661.684 51346.48 61.171902
41661.777 51345.348 61.318085
41661.676 51345.191 61.324783
41661.758 51343.414 61.37764
41661.699 51342.961 61.385941
41661.734 51341.215 61.325638
41661.648 51340.574 61.379189
41661.578 51340.266 61.373142
41661.75 51339.922 61.369312
41661.777 51339.562 61.363548
41661.945 51352.914 61.138477
41661.848 51351.805 61.183178
41662.02 51351.535 61.186745
41661.895 51351.055 61.208931
41661.793 51350.852 61.220009
41661.93 51347.484 61.333588
41661.934 51347.074 61.346947
41661.867 51346.73 61.242573
41661.938 51343.488 61.306335
41662.004 51339.914 61.370884
41662.133 51339.59 61.357697
41662.156 51351.906 61.167927
41662.152 51351.48 61.183884
41662.383 51339.91 61.303493
41662.543 51339.598 61.292297
41662.809 51352.672 61.113472
41662.797 51352.383 61.124908
41662.926 51343.453 61.27552
41662.887 51339.613 61.290291
41663.43 51339.949 61.307228
41663.121 51339.676 61.295452
41663.699 51339.957 61.257095
41663.797 51339.637 61.289398
41664.148 51343.445 61.236721
41664.152 51339.891 61.251244
41664.141 51339.637 61.234596
41664.25 51352.648 61.052921
41664.492 51339.641 61.229374
41665.02 51343.465 61.373245
41664.891 51339.645 61.220257
41665.344 51345.457 61.166229
41665.328 51343.492 61.214844
41665.293 51339.648 61.205585
41665.512 51345.387 61.163448
41665.695 51343.492 61.136326
41665.828 51342.449 61.255772
41665.84 51341.883 61.259613
41665.691 51339.652 61.186165
41665.996 51343.496 61.089455
41666 51342.328 61.248051
41666.059 51341.996 61.24704
41666.086 51339.66 61.161797
41666.508 51343.469 61.139679
41666.391 51342.355 61.23917
41666.391 51341.973 61.241714
41666.551 51339.918 61.146324
41666.414 51339.648 61.136314
41666.703 51340.617 61.039082
41666.98 51339.57 61.132313
41666.941 51338.859 61.095604
41667.285 51339.59 61.108364
41667.27 51338.645 61.12822
41667.398 51338.508 61.113625
41667.469 51353.508 60.858143
41667.605 51352.93 60.87273
41667.711 51343.527 61.055676
41667.68 51339.602 61.072712
41667.602 51338.367 61.168755
41667.797 51352.879 60.864044
41667.961 51352.387 60.873466
41668.055 51352.023 60.881996
41668.062 51339.668 61.038113
41668.406 51352.246 60.853149
41668.234 51352.062 60.87009
41668.555 51343.562 61.070351
41668.434 51339.699 61.004463
41668.707 51352.332 60.832081
41668.848 51343.582 60.974781
41668.953 51339.941 61.03006
41668.871 51339.715 61.028664
41668.922 51352.227 60.823364
41669.109 51352.055 60.818279
41669.258 51339.727 60.9967
41669.5 51351.914 60.799461
41669.617 51351.105 60.821339
41669.676 51339.727 60.954819
41669.785 51351.867 60.783081
41669.801 51351.676 60.789055
41669.762 51351.234 60.807373
41669.906 51345.09 60.897327
41669.957 51344.98 60.896446
41670.125 51343.566 60.917213
41670.074 51339.73 60.920387
41670.391 51351.953 60.741692
41670.414 51351.59 60.752853
41670.441 51351.191 60.764965
41670.527 51339.945 60.880447
41670.445 51339.754 60.885334
41670.711 51351.898 60.722752
41670.586 51351.738 60.736454
41670.543 51351.137 60.760365
41670.941 51343.605 60.834633
41670.781 51340.023 60.857758
41670.945 51352.102 60.700428
41671.266 51343.559 60.909336
41671.316 51340.008 60.91415
41671.699 51343.578 60.873512
41671.523 51339.898 60.896732
41671.723 51339.781 60.879749
41671.941 51343.547 60.853706
41672.18 51339.785 60.842541
41672.242 51349.242 60.703445
41672.418 51343.562 60.814308
41672.473 51339.793 60.818645
41672.641 51349.109 60.678108
41672.719 51343.562 60.789227
41672.844 51339.797 60.788303
41673.254 51339.801 60.754837
41673.668 51343.586 60.71059
41673.77 51340.039 60.713604
41673.676 51339.801 60.72023
41674.145 51340.031 60.682644
41674.047 51339.824 60.689922
41674.551 51343.625 60.636799
41674.387 51340.094 60.662926
41674.785 51343.633 60.617409
41675.777 51339.84 60.547497
41676.035 51343.645 60.513763
41676.242 51340.492 60.510056
41676.227 51340.152 60.511036
41676.031 51339.852 60.52663
41676.352 51340.75 60.501034
41676.258 51340.68 60.508808
41676.293 51340.113 60.505417
41676.348 51339.875 60.500351
41676.812 51340.785 60.462917
41634.539 51340.977 62.932281
41634.613 51336.953 62.94738
41643.035 51343.637 62.883961
41643.98 51343.641 62.821201
41644.543 51343.668 62.783932
41645.129 51343.691 62.745102
41645.82 51343.699 62.699482
41646.473 51343.707 62.656242
41647.012 51343.723 62.620628
41647.582 51343.73 62.582939
41647.992 51343.75 62.55574
41648.469 51343.758 62.379059
41649.062 51343.758 62.484917
41649.328 51343.781 62.467178
41649.754 51343.789 62.439003
41650.129 51343.797 62.414238
41650.641 51343.789 62.380352
41650.785 51340.828 62.384106
41651.273 51343.766 62.338669
41651.727 51343.758 62.30875
41651.98 51343.77 62.291882
41652.648 51343.773 62.247768
41652.973 51343.793 62.226429
41653.191 51343.84 62.21191
41653.641 51343.855 62.182083
41653.684 51340.887 62.191906
41654.25 51343.82 62.141876
41654.496 51362.457 62.247021
41654.5 51362.219 62.244221
41654.508 51361.836 62.239632
41654.523 51361.379 62.233971
41654.535 51360.949 62.228989
41654.543 51360.598 62.224922
41654.555 51360.25 62.2206
41654.559 51359.758 62.145443
41654.57 51359.359 62.210678
41654.57 51359.008 62.20723
41654.578 51358.594 62.202705
41654.586 51358.195 62.19841
41654.59 51357.816 62.194473
41654.598 51357.391 62.189896
41654.609 51356.977 62.185246
41654.621 51356.578 62.180893
41654.629 51356.199 62.177032
41654.637 51355.781 62.172737
41654.641 51355.359 62.111069
41654.648 51355.008 62.165371
41654.656 51354.594 62.161255
41654.66 51354.203 62.157806
41654.656 51353.867 62.155216
41654.695 51352.105 62.077114
41654.699 51351.871 62.137508
41654.73 51350.121 62.124424
41654.734 51349.785 62.09745
41654.746 51349.379 62.119663
41654.75 51348.988 62.117531
41654.758 51348.586 62.11517
41654.77 51348.195 62.112793
41654.773 51347.867 62.111301
41654.785 51347.395 62.109108
41654.793 51347 62.107441
41654.797 51346.598 62.106243
41654.797 51346.383 62.105728
41654.824 51345.973 62.199783
41654.828 51345.34 62.102768
41654.832 51344.992 62.102444
41654.801 51344.562 62.197742
41654.852 51344.145 62.101727
41654.852 51343.887 62.102253
41659.699 51340.609 62.001156
41660.254 51340.23 61.76487
41660.129 51339.75 61.827686
41660.484 51353.305 61.808605
41660.484 51340.578 61.911434
41660.473 51340.297 61.8396
41660.543 51339.902 61.83432
41660.504 51339.52 61.917004
41660.848 51353.129 61.786289
41660.891 51352.266 61.77422
41660.934 51351.57 61.764069
41660.973 51340.754 61.865974
41660.738 51340.469 61.90202
41660.891 51339.98 61.869331
41660.914 51339.57 61.8195
41661.148 51352.688 61.764458
41661.25 51351.75 61.748398
41661.047 51351.445 61.756283
41661.227 51351.18 61.743279
41661.438 51341.008 61.751534
41661.363 51340.816 61.836071
41661.375 51340.207 61.848919
41661.195 51339.93 61.789787
41661.227 51339.367 61.855862
41661.445 51362.449 61.866024
41661.668 51354.957 61.762768
41661.695 51353.301 61.741558
41661.559 51353.137 61.747154
41661.461 51352.723 61.747658
41661.418 51351.859 61.740192
41661.547 51351.469 61.7286
41661.711 51351.219 61.883575
41661.488 51350.809 61.562794
41661.75 51345.418 61.799236
41661.652 51345.207 61.74543
41661.781 51343.426 61.779007
41661.723 51342.973 61.779697
41661.734 51341.301 61.722839
41661.723 51341.172 61.790573
41661.539 51340.844 61.674706
41661.691 51340.27 61.816467
41661.785 51339.926 61.814327
41661.816 51339.566 61.826412
41661.867 51363.801 61.67458
41661.875 51363.617 61.858147
41661.801 51363.238 61.857151
41661.621 51362.738 61.860298
41661.879 51356.836 61.774227
41661.902 51356.172 61.764969
41661.801 51356.016 61.768417
41661.848 51353.816 61.739536
41661.871 51353.48 61.700562
41661.781 51351.48 61.715843
41661.922 51343.5 61.762856
41662.125 51339.582 61.79792
41661.977 51363.844 61.855637
41662.484 51354.781 61.717022
41662.113 51353.855 61.725597
41662.363 51352.617 61.697403
41662.32 51352.285 61.695675
41662.355 51339.742 61.703114
41662.516 51339.586 61.759861
41662.523 51363.016 61.817101
41662.398 51362.004 61.810856
41662.73 51354.996 61.706772
41662.57 51354.84 61.713375
41662.719 51352.602 61.678196
41662.965 51343.465 61.712563
41662.922 51339.609 61.726845
41662.961 51354.781 61.691967
41663.18 51354.188 61.673389
41663.07 51352.441 61.657509
41663.355 51343.457 61.8941
41663.414 51339.832 61.7831
41663.285 51339.629 61.746891
41663.402 51358.559 61.716263
41663.473 51358.293 61.709538
41663.613 51358.105 61.699894
41663.441 51353.836 61.655273
41663.492 51353.711 61.651131
41663.699 51343.465 61.819954
41663.676 51340.016 61.644855
41663.719 51339.625 61.712734
41663.867 51353.957 61.634834
41664.176 51343.453 61.653912
41664.172 51339.879 61.659363
41664.168 51339.629 61.714413
41664.195 51363.039 61.732738
41664.293 51353.137 61.602829
41664.57 51349.023 61.772617
41664.297 51348.699 61.773205
41664.219 51348.395 61.764023
41664.527 51348.117 61.733414
41664.543 51339.629 61.684067
41664.707 51357.434 61.636471
41664.727 51356.992 61.629829
41664.535 51353.605 61.596653
41664.754 51348.719 61.748463
41664.797 51348.328 61.727955
41664.812 51343.473 61.557995
41664.93 51339.629 61.656422
41665.062 51348.98 61.744255
41665.086 51348.879 61.738155
41665.355 51345.473 61.622272
41665.355 51343.488 61.591793
41665.312 51339.633 61.642323
41665.668 51347.871 61.662403
41665.523 51345.453 61.557884
41665.812 51343.516 61.730404
41665.707 51339.637 61.622929
41665.898 51348.793 61.694611
41665.902 51348.254 61.669361
41666.031 51347.961 61.64996
41666.105 51347.273 61.614872
41666.102 51343.492 61.762306
41666.086 51339.645 61.599632
41666.215 51363.477 61.639267
41666.359 51362.211 61.616299
41666.102 51362.027 61.626385
41666.211 51360.164 61.597492
41666.395 51359.383 61.578739
41666.285 51359.328 61.583378
41666.57 51348.176 61.637489
41666.539 51348.129 61.636421
41666.34 51347.207 61.602066
41666.543 51343.465 61.553371
41666.57 51339.926 61.573257
41666.426 51339.641 61.592003
41666.633 51360.547 61.582134
41666.715 51360.109 61.572517
41666.441 51359.27 61.575001
41666.613 51348.309 61.641712
41666.957 51339.598 61.54454
41666.977 51338.852 61.529282
41666.945 51361.633 61.580856
41667.066 51360.215 61.557236
41667.039 51359.898 61.554607
41666.949 51359.523 61.554047
41666.98 51359.227 61.548923
41667.309 51339.586 61.543854
41667.125 51338.988 61.645405
41667.211 51338.816 61.462112
41667.375 51338.559 61.398769
41667.477 51363.555 61.215469
41667.551 51359.047 61.51968
41667.766 51346.059 61.664062
41667.719 51343.52 61.514854
41667.676 51339.586 61.534897
41667.871 51363.852 61.565125
41667.707 51363.598 61.56966
41667.914 51363.32 61.55648
41667.805 51354.402 61.450012
41667.922 51354.117 61.441277
41667.891 51353.488 61.434879
41667.902 51353.223 61.527061
41668.016 51352.918 61.37571
41668.141 51339.66 61.521282
41668.18 51363.434 61.545403
41668.078 51360.469 61.512928
41668.297 51353.094 61.411888
41668.375 51352.648 61.402996
41668.445 51352.312 61.395794
41668.512 51352.098 61.390438
41668.457 51343.531 61.475731
41668.504 51339.688 61.469448
41668.453 51359.562 61.484337
41668.566 51359.254 61.475319
41668.75 51352.371 61.383102
41668.723 51351.98 61.379864
41668.871 51351.754 61.370621
41668.883 51343.57 61.422218
41668.965 51339.953 61.457245
41668.906 51339.707 61.462116
41669.02 51351.996 61.544888
41669.113 51351.617 61.344349
41669.438 51343.539 61.565708
41669.113 51339.82 61.386196
41669.258 51339.723 61.46217
41669.223 51363.434 61.497166
41669.512 51351.828 61.344284
41669.539 51351.508 61.339436
41669.574 51351.406 61.336826
41669.594 51343.535 61.570637
41669.703 51339.719 61.376846
41669.926 51351.496 61.323158
41669.945 51345.078 61.412411
41669.965 51344.984 61.347076
41670.133 51343.57 61.337818
41670.176 51339.723 61.425129
41670.406 51351.926 61.308029
41670.34 51351.582 61.307076
41670.238 51344.973 61.348892
41670.562 51339.945 61.356628
41670.484 51339.75 61.361649
41670.703 51352.25 61.492661
41670.758 51351.891 61.293259
41670.762 51351.738 61.291519
41670.918 51343.582 61.326019
41670.844 51340.012 61.350719
41671.078 51351.973 61.281216
41671.141 51351.785 61.276829
41671.238 51343.566 61.320045
41671.355 51340.004 61.342171
41671.543 51351.93 61.26226
41671.355 51351.762 61.268005
41671.73 51343.562 61.312038
41671.547 51339.895 61.313198
41671.762 51339.77 61.339153
41672.148 51349.246 61.214523
41672.031 51348.617 61.213921
41671.914 51343.543 61.310421
41672.199 51339.781 61.331486
41672.129 51352.543 61.245113
41672.375 51349.211 61.205864
41672.223 51348.953 61.209446
41672.59 51343.578 61.176174
41672.504 51339.785 61.326389
41672.578 51349.023 61.197018
41672.855 51339.789 61.32024
41673.414 51343.59 61.286991
41673.301 51339.793 61.174664
41673.703 51343.59 61.14069
41673.789 51340.039 61.15659
41673.715 51339.793 61.161205
41674.16 51340.016 61.145004
41674.09 51339.82 61.148933
41674.184 51354.941 61.187778
41674.398 51340.082 61.084736
41674.812 51343.633 61.105213
41675.816 51339.836 61.093449
41676.055 51343.625 61.065861
41676.141 51340.043 61.08136
41676.137 51339.836 61.17609
41676.531 51339.84 61.070568
41676.762 51343.652 61.043289
41676.867 51339.844 61.059753
41677.062 51343.652 61.033825
41677.758 51340.043 61.029854
41677.676 51339.879 61.033665
41677.84 51349.316 61.014679
41677.918 51340.207 61.023529
41678.531 51343.676 60.98711
41680.172 51362.836 60.599655
41680.547 51348.402 60.921638
41680.543 51348.344 60.92173
41680.488 51347.617 60.922276
41680.496 51347.359 60.921715
41680.449 51347.047 60.922932
41680.387 51346.488 60.924774
41680.414 51346.293 60.92379
41680.52 51345.941 60.920559
41680.914 51351.227 60.918274
41680.918 51351.031 60.917324
41680.895 51349.715 60.913467
41680.734 51349.34 60.876919
41680.695 51349.117 60.918449
41680.688 51348.516 60.917297
41680.633 51347.801 60.9179
41680.816 51346.98 60.911045
41680.637 51345.895 60.916771
41680.922 51343.785 60.911114
41680.941 51340.145 60.927917
41680.848 51339.91 60.93261
41681.004 51358.965 60.96418
41680.988 51357.875 60.956131
41681.203 51357.215 60.94339
41681.254 51355.988 60.932869
41681.172 51353.719 60.921654
41681.18 51353.387 60.91951
41681.246 51352.988 60.915104
41680.977 51351.195 60.916023
41680.98 51350.906 60.914753
41681.141 51350.625 60.908192
41681.125 51350.195 60.907269
41681.09 51349.93 60.9076
41681.332 51345.516 60.894772
41681.055 51343.922 60.906494
41681.383 51342.754 60.629925
41681.371 51340.645 60.640171
41681.312 51340.098 60.916492
41681.242 51339.93 60.919952
41681.445 51359.41 60.552616
41681.332 51356.965 60.93681
41681.57 51356.719 60.926529
41681.277 51356.098 60.932705
41681.383 51355.793 60.926941
41681.297 51355.328 60.86895
41681.461 51354.973 60.918842
41681.609 51354.598 60.911427
41681.32 51354.098 60.918568
41681.598 51345.492 60.886353
41681.723 51340.285 60.90221
41681.711 51356.613 60.920746
41682.047 51354.934 60.898022
41681.855 51354.707 60.903301
41682.238 51341.305 60.879803
41682.129 51340.91 60.885548
41682.141 51340.602 60.887058
41682.188 51351.348 60.875565
41682.324 51342.68 60.870586
41682.316 51341.035 60.878895
41682.375 51340.258 60.88176
41682.508 51357.566 60.898621
41682.535 51355.398 60.883522
41682.758 51345.449 60.849392
41683.332 51343.727 60.834923
41686.883 51344.176 60.721264
41686.875 51343.836 60.722511
41686.992 51342.184 60.725216
41687 51341.949 60.726124
41687.074 51346.203 60.710712
41687.055 51345.836 60.619137
41687.074 51345.449 60.712017
41687.105 51344.887 60.712265
41687.094 51344.676 60.713161
41687.09 51344.402 60.713936
41687.098 51343.48 60.716648
41687.105 51343.07 60.717976
41687.113 51342.629 60.719509
41687.117 51342.391 60.72039
41687.094 51341.742 60.724178
41687.102 51341.473 60.725288
41687.125 51341.102 60.726524
41687.129 51340.82 60.727936
41628.902 51323.191 63.992413
41632.449 51333.434 63.650303
41632.293 51331.695 63.676773
41632.621 51331.914 63.65337
41634.477 51343.812 63.44952
41634.531 51343.418 63.447205
41634.543 51343.078 63.447906
41634.551 51342.688 63.449085
41634.559 51342.297 63.450359
41634.562 51341.91 63.451786
41634.57 51341.52 63.453171
41634.578 51341.129 63.454716
41634.586 51340.691 63.456394
41634.594 51340.254 63.458443
41634.602 51339.863 63.460003
41634.602 51339.621 63.461399
41634.613 51339.133 63.463623
41634.625 51338.543 63.466694
41634.625 51338.297 63.468357
41634.641 51337.902 63.470173
41634.645 51337.508 63.472538
41634.652 51337.16 63.474648
41634.66 51336.766 63.477039
41636.418 51333.246 63.391891
41636.523 51323.031 63.508278
41636.547 51322.785 63.510223
41636.816 51322.703 63.494377
41637.07 51343.492 63.279095
41638.391 51323.395 63.38496
41638.441 51343.516 63.188259
41640.598 51343.562 63.045368
41641.398 51343.594 62.992237
41642.117 51343.625 62.944653
41647.156 51343.715 62.924377
41650.117 51375.258 62.633881
41650.305 51375.266 62.623451
41650.816 51340.836 62.883732
41650.797 51340.719 62.887043
41651.285 51343.773 62.824814
41652.641 51343.781 62.689682
41652.965 51343.801 62.657207
41653.141 51343.836 62.639759
41653.633 51343.824 62.590538
41653.719 51340.91 62.5928
41653.742 51334.129 62.745621
41654.145 51343.809 62.539379
41654.469 51343.812 62.507198
41654.41 51364.953 62.278629
41654.414 51364.676 62.275368
41654.438 51364.188 62.268738
41654.453 51363.73 62.262959
41654.465 51363.375 62.258404
41654.477 51363.035 62.254154
41654.488 51362.703 62.250069
41654.594 51359.113 62.549721
41654.668 51355 62.449795
41654.719 51351.961 62.384861
41654.668 51350.137 62.586185
41654.758 51349.602 62.342155
41654.727 51348.621 62.544628
41654.73 51347.906 62.529633
41654.75 51347.113 62.513226
41654.82 51345.961 62.489182
41654.848 51345.469 62.481037
41654.895 51344.598 62.468819
41654.867 51344.219 62.468887
41654.793 51343.832 62.474834
41659.406 51340.844 62.242962
41659.738 51340.773 62.306667
41659.887 51340.254 62.299679
41659.66 51339.852 62.461433
41659.973 51341.281 62.356537
41660.133 51341.129 62.238239
41660.074 51340.664 62.257504
41660.07 51340.316 62.273373
41660.199 51339.992 62.164337
41660.289 51339.613 62.168072
41660.59 51341.426 62.072998
41660.574 51341.078 62.255154
41660.527 51340.543 62.19619
41660.504 51340.297 62.207928
41660.477 51339.906 62.229805
41660.453 51339.52 62.252068
41660.461 51339.188 62.372852
41660.395 51374.324 62.067921
41660.781 51356.316 62.334187
41660.535 51355.625 62.320168
41660.773 51353.926 62.230774
41660.914 51341.355 62.190754
41660.949 51341.113 62.357021
41660.855 51340.75 62.225204
41661 51340.113 62.233532
41661.043 51339.852 62.24094
41661.008 51339.566 62.173336
41661.027 51339.086 62.242138
41661.082 51358.652 62.128975
41661.059 51356.137 62.308292
41660.996 51353.812 62.210571
41661.32 51353.648 62.181908
41661.5 51341.48 62.386196
41661.355 51341.062 62.281219
41661.23 51340.832 62.239872
41661.254 51340.383 62.2589
41661.297 51339.781 62.10527
41661.211 51339.383 62.24461
41661.289 51339.273 62.285278
41661.281 51358.566 62.115047
41661.484 51356.801 62.052914
41661.547 51354.043 62.078289
41661.414 51353.609 62.173965
41661.762 51345.414 62.169003
41661.645 51345.234 62.176826
41661.812 51343.438 62.186115
41661.742 51342.973 62.048584
41661.578 51341.422 62.369423
41661.68 51341.125 62.193604
41661.793 51340.875 62.134468
41661.801 51340.359 62.126766
41661.816 51339.891 62.194565
41661.855 51339.551 62.215767
41661.883 51354.91 62.201244
41661.98 51352.777 62.294342
41662.023 51343.477 62.081902
41662.203 51339.582 62.231316
41662.227 51355.609 62.211479
41662.277 51355.137 62.186977
41662.176 51352.703 62.084385
41662.348 51343.445 62.085651
41662.543 51339.574 62.174026
41662.492 51358.727 62.051479
41662.68 51355.152 62.1633
41662.652 51354.793 62.148518
41662.797 51352.797 62.049545
41663 51343.461 62.0116
41662.938 51339.602 62.107662
41663.176 51357.16 62.226562
41662.992 51355.195 62.14687
41663.02 51354.727 62.123833
41663.074 51352.449 62.016895
41663.219 51343.465 62.014793
41663.316 51339.613 62.10688
41663.473 51357.082 62.206093
41663.453 51356.723 62.190777
41663.512 51353.961 62.06012
41663.457 51352.254 61.985184
41663.66 51343.465 61.962406
41663.789 51339.617 62.144249
41664.164 51343.461 61.925278
41664.195 51339.883 62.03051
41664.168 51339.621 62.085846
41664.422 51347.887 61.931271
41664.57 51343.492 61.876453
41664.535 51339.621 62.035576
41664.82 51348.238 61.935341
41664.84 51347.941 62.115536
41664.871 51339.754 62.061111
41664.945 51339.633 61.988117
41665.125 51348.57 61.833344
41665.117 51348.277 61.921871
41665.164 51347.918 62.093525
41665.359 51345.492 61.980343
41665.281 51339.625 61.96302
41665.715 51347.934 61.86393
41665.555 51345.523 61.977364
41665.773 51339.629 61.939144
41665.926 51348.688 62.146782
41666.102 51348.262 61.981293
41665.934 51347.953 61.856213
41665.895 51347.422 61.814651
41666.16 51347.352 61.982815
41666.219 51346.586 62.053013
41666.203 51346.457 61.95776
41666.242 51345.141 62.06089
41666.125 51339.637 61.934551
41666.43 51348.316 62.085426
41666.215 51347.762 61.829395
41666.512 51347.664 61.810909
41666.289 51347.18 61.958843
41666.355 51346.75 61.985683
41666.355 51346.441 62.028236
41666.488 51346.031 62.037525
41666.539 51345.707 62.051201
41666.477 51345.242 62.085918
41666.484 51343.477 61.792713
41666.621 51339.875 61.893665
41666.477 51339.621 61.941628
41666.738 51348.633 62.11282
41666.641 51347.941 62.036537
41666.82 51347.445 61.976185
41666.867 51347.176 61.851547
41666.734 51346.66 61.971416
41666.832 51346.469 62.027683
41666.891 51345.941 62.02441
41666.895 51345.602 61.969658
41666.809 51345.301 62.045105
41666.84 51343.492 61.769112
41666.969 51339.594 61.899967
41666.984 51338.863 61.912781
41666.699 51374.434 61.754574
41667.145 51361.574 61.901974
41667.137 51347.145 61.843441
41667.137 51346.758 61.884766
41667.199 51346.297 62.004421
41667.262 51346.008 61.885662
41667.215 51345.734 61.927139
41667.227 51343.5 61.738022
41667.332 51339.574 61.933933
41667.105 51374.43 61.735023
41667.691 51347.402 61.762161
41667.508 51347.117 61.743759
41667.641 51346.805 61.808582
41667.629 51346.48 61.864998
41667.621 51345.949 61.88752
41667.676 51345.602 61.922207
41667.738 51343.508 61.701084
41667.719 51339.574 61.902596
41667.516 51374.457 61.715813
41667.793 51353.922 61.852005
41667.957 51353.531 61.827858
41668.074 51353.305 61.813248
41667.871 51345.996 61.89938
41667.918 51345.777 61.720875
41667.863 51343.508 61.71199
41668.102 51339.645 61.85704
41668.406 51353.438 61.807079
41668.227 51353.324 61.808483
41668.316 51352.398 61.763649
41668.34 51352.07 61.748165
41668.508 51347.258 61.951702
41668.547 51343.523 61.655594
41668.52 51339.68 61.880451
41668.605 51352.348 61.75135
41668.707 51352.121 61.737892
41668.723 51351.547 61.712193
41668.926 51347.258 61.848534
41668.941 51343.574 61.815865
41668.996 51339.949 61.892338
41668.875 51339.691 61.904388
41669.121 51352.48 61.834461
41669.148 51351.977 61.717484
41669.188 51351.723 61.705391
41669.133 51347.453 61.866333
41669.148 51347.121 61.95031
41669.336 51339.711 61.77557
41669.398 51352.129 61.7164
41669.426 51351.668 61.695919
41669.457 51351.215 61.675682
41669.52 51347.555 61.762032
41669.719 51339.707 61.801926
41669.879 51351.605 61.680428
41669.953 51351.289 61.665333
41669.945 51346.461 61.917374
41669.98 51345.094 61.727577
41670.012 51344.977 61.722855
41670.059 51339.707 61.81916
41670.141 51375.66 61.607162
41669.875 51374.508 61.605042
41670.484 51352.094 61.877232
41670.301 51351.602 61.669197
41670.203 51351.41 61.663776
41670.59 51339.934 61.741589
41670.512 51339.73 61.81094
41670.465 51375.668 61.59227
41670.75 51351.996 61.674004
41670.75 51351.449 61.651951
41670.621 51351.293 61.648666
41670.812 51349.652 61.899929
41670.867 51349.398 61.883659
41670.699 51347.582 61.771732
41670.746 51340.082 61.742527
41670.789 51375.672 61.577351
41671.051 51351.836 61.66029
41671.105 51351.664 61.652206
41671.367 51343.633 61.738514
41671.41 51339.984 61.778
41671.055 51375.66 61.564854
41671.516 51351.754 61.646606
41671.797 51351.891 61.645905
41671.844 51351.832 61.642696
41671.957 51349.258 61.630741
41672.242 51339.77 61.669788
41672.32 51349.527 61.551895
41672.312 51349.199 61.541435
41672.359 51348.812 61.528526
41672.457 51348.621 61.521557
41672.52 51339.762 61.775032
41672.82 51348.891 61.525642
41672.953 51339.773 61.58709
41673.086 51348.883 61.610245
41673.305 51339.777 61.594284
41673.777 51343.598 61.570312
41673.816 51340.035 61.597019
41673.703 51339.781 61.600494
41674.199 51340.012 61.60429
41674.121 51339.809 61.607018
41674.25 51354.949 61.711979
41674.449 51340.07 61.607605
41675.891 51339.82 61.453411
41676.172 51343.621 61.428577
41676.168 51340.039 61.450451
41676.086 51339.832 61.453487
41676.605 51339.828 61.553066
41676.906 51339.832 61.554977
41677.766 51349.055 61.494526
41677.785 51340.043 61.452831
41677.73 51339.871 61.455044
41677.895 51349.383 61.500847
41677.953 51340.203 61.451027
41678.27 51362.398 61.100334
41678.57 51343.656 61.433258
41678.641 51362.422 61.0858
41678.984 51362.594 61.074024
41678.859 51361.34 61.066788
41679.133 51361.027 61.053211
41679.77 51363.418 61.051228
41679.867 51363.062 61.043964
41680.242 51362.973 61.028458
41680.188 51362.09 61.022285
41680.582 51346.953 61.187908
41680.469 51346.477 61.451588
41680.43 51346.289 61.449806
41680.453 51345.891 61.44648
41680.539 51362.973 61.016949
41680.652 51349.293 61.205208
41680.883 51344.07 61.438412
41680.98 51343.613 61.438164
41680.988 51343.566 61.438175
41680.938 51339.902 61.459961
41681.113 51360.016 60.968788
41681.062 51359.734 60.968346
41681.07 51359.32 61.161224
41681.172 51355.383 61.280453
41682.145 51340.73 61.170223
41687.129 51343.172 61.084976
41608.344 51323.953 65.318779
41615.02 51324.312 64.879158
41615.523 51324.312 64.846313
41615.539 51324.141 64.847137
41617.852 51332.816 64.615402
41618.875 51332.484 64.550659
41618.672 51332.137 64.566925
41618.918 51332.801 64.545364
41618.977 51332.508 64.543785
41622.414 51324.441 64.396713
41622.703 51324.402 64.378464
41634.617 51340.699 63.981155
41650.711 51339.332 63.174221
41650.879 51334.898 62.989376
41650.902 51334.648 62.993935
41652.598 51339.289 63.186497
41653.762 51336.848 63.111965
41653.77 51336.656 63.118557
41653.789 51336.363 63.128651
41654.105 51336.156 63.097626
41654.734 51340.113 62.883381
41654.695 51339.918 62.892445
41654.523 51360.566 62.954639
41654.539 51359.113 62.896786
41654.59 51357.66 62.837864
41654.59 51356.066 62.779617
41654.617 51354.523 62.723625
41654.66 51353.863 62.697865
41654.723 51350.227 63.053135
41654.746 51348.629 62.980877
41654.773 51348.16 62.959435
41654.785 51347.633 62.938541
41654.758 51347.102 62.924488
41654.801 51346.406 62.89854
41654.84 51345.484 62.871544
41654.863 51344.297 62.848404
41654.785 51343.859 62.854248
41658.984 51340.742 62.778152
41659.488 51341.098 62.662548
41659.398 51340.801 62.691616
41659.773 51341.34 62.596588
41659.688 51340.984 62.626099
41659.832 51340.84 62.602085
